ply
format ascii 1.0
comment created by gply, a Houdini tool.
comment converted from .[b]geo
comment for more information about Houdini, try:
comment www.sidefx.com
element vertex 969
property float x
property float y
property float z
property uchar red
property uchar green
property uchar blue
element face 0
property list uchar int vertex_indices
end_header
-0.199123427 0.104838237 -0.269332618 94 128 92 
-0.144563809 -1.37707758 -0.289535075 98 54 84 
-0.653802633 2.14390397 0.0197792612 60 230 211 
-0.0308410246 -1.36722636 -0.28348425 107 55 87 
0.810135067 1.94974327 0.10919632 171 220 248 
0.0398378372 -1.32151425 -0.113769472 112 57 156 
0.126264185 0.333967894 -0.226435527 119 140 110 
0.055613488 -1.09753537 -0.162281692 113 68 136 
1.07907534 1.9615519 -0.0625731573 191 221 177 
0.167407423 -1.18402171 -0.0680126101 122 64 175 
-0.00252059475 0.012146906 -0.138678744 109 124 146 
0.199178904 1.73850751 -0.324904203 124 210 69 
-0.112820111 1.48092043 -0.171422392 101 197 133 
0.334044069 1.84585321 -0.30202961 135 215 79 
-0.263706625 -1.43732738 0.111104444 89 51 249 
0.134098992 2.35996985 -0.00679036696 119 241 200 
-0.140296072 -1.70004833 -0.288979083 99 38 84 
-0.556989968 2.38857245 -0.12318828 67 242 152 
0.34534499 2.19312024 -0.272554904 136 232 91 
0.070852831 -0.37403807 -0.110206947 115 104 158 
-0.735156178 1.86145401 -0.191900566 53 216 124 
-0.202237099 1.45311463 -0.301606834 94 195 79 
-0.0075711133 -0.0285888836 0.0122437803 109 122 208 
0.124756895 1.20973647 -0.113859221 119 183 156 
0.91788429 1.9476167 -0.258052647 179 220 97 
-0.031541355 0.752959907 0.0133484174 107 160 209 
0.121189475 -1.37022245 -0.117738821 118 55 155 
-0.114394926 -1.94741476 -0.226828054 101 26 110 
1.31063998 1.77505648 -0.187422752 209 211 126 
0.0269834045 1.03619254 -0.238539785 111 175 105 
-0.114898004 -0.142304868 -0.13613978 101 116 147 
0.0549460575 1.75985253 -0.160028115 113 211 137 
-1.26495874 2.33475018 -0.0230151042 13 239 194 
0.326844156 -1.2753458 -0.154012874 134 59 140 
0.210187539 -0.8157143 -0.204543725 125 82 119 
-0.372048676 1.00957263 -0.311324298 81 173 75 
-0.324871361 2.44562793 -0.222008839 85 245 112 
0.846149504 2.11649323 -0.0101211946 174 228 199 
0.877174973 1.90286827 0.00925209746 176 218 207 
0.068295829 2.10256219 -0.206131667 114 228 118 
1.27201557 1.91048002 -0.133733571 206 218 148 
0.167547911 -1.87079132 -0.242632613 122 30 103 
0.207870945 -0.0515594557 -0.21565111 125 120 114 
-0.00945135206 1.10396957 -0.119255044 109 178 154 
1.4907198 1.9156574 -0.0693370178 223 218 175 
-0.866869807 2.31846499 -0.223271206 43 238 111 
-0.0561318696 2.39017677 -0.167351127 105 242 134 
0.195676237 -0.867550671 -0.0616709478 124 80 178 
0.0534000136 -1.17951274 -0.136325106 113 64 147 
0.204707161 1.95476675 -0.253852606 125 220 99 
-0.157207638 -1.42421818 -0.0598665439 97 52 179 
-0.0773842409 0.439727426 -0.155228972 103 145 139 
1.32815647 1.85028923 -0.118305326 210 215 154 
0.107298076 -0.0670763403 -0.481987387 117 120 5 
0.755240142 1.84044671 -0.105503418 167 215 160 
0.009503901 0.145435721 -0.187808588 110 130 126 
1.50752473 1.70820749 -0.0963507444 224 208 164 
-0.453095794 2.35395122 -0.167123392 75 240 134 
0.677129984 2.04968238 -0.481121153 161 225 5 
-0.128279462 -1.97482431 -0.38889128 99 25 43 
-0.883733094 2.46838403 -0.111723781 42 246 157 
0.190315515 -0.133885145 -0.251805961 124 116 100 
-0.0309389867 0.575038612 -0.0660198703 107 152 176 
-0.294096589 -1.35392773 -0.327104658 87 56 69 
0.0418960452 -0.0264717229 -0.245155528 112 122 102 
0.15759939 0.544203401 0.111142918 121 150 249 
-0.156603843 -0.129914343 -0.0752614513 97 117 172 
-0.346241117 1.86830938 -0.0926703662 83 216 165 
-0.170814633 -1.49240458 -0.119900756 96 49 154 
-0.202809989 0.575631738 -0.0533373468 94 152 181 
0.528622627 2.22732353 -0.482796669 149 234 5 
0.627471685 1.7648958 -0.251010716 157 211 100 
-0.109968573 1.94546402 -0.152086809 101 220 141 
-0.182260334 0.619415581 0.00208967924 95 154 204 
1.77792573 1.90193725 -0.0193670951 245 218 195 
-0.873740852 1.92983055 -0.276167274 43 219 90 
0.0523615666 -0.0283734892 -0.19586429 113 122 123 
-0.229720324 -1.11030984 -0.039085459 92 68 187 
-0.880141735 2.25863194 -0.155923367 42 236 139 
-1.08403969 1.83267462 -0.400204957 27 214 38 
0.131693989 -1.48778212 -0.0710419491 119 49 174 
-0.143892795 0.0266254637 -0.111592732 98 124 157 
0.260497093 2.27501154 -0.218573973 129 236 113 
0.276888281 0.104203619 -0.25132674 130 128 100 
0.191255704 -1.76750398 -0.0945013613 124 35 164 
-1.20908761 2.36475945 -0.0588823445 17 241 179 
-0.26723963 -0.0343481079 -0.207542077 89 121 118 
-0.284825832 1.17193902 -0.189298064 88 181 125 
-1.42718208 2.5201304 -0.289572924 1 249 84 
1.14722991 1.89671779 -0.245811999 197 217 102 
0.0647993088 -1.63167858 -0.0882926956 114 42 167 
0.165434867 -0.372321457 -0.254071921 122 104 99 
0.196629092 -0.49799192 -0.198349133 124 98 122 
-1.24366927 2.14885688 0.0286376644 15 230 215 
0.0593303218 2.15395617 0.0210244041 114 230 212 
-0.208436891 2.12293339 0.0277708359 93 229 215 
-1.22246277 1.955019 -0.0842100158 16 220 169 
0.0292207915 0.604440749 -0.241583481 111 153 104 
-0.037753839 2.04153681 -0.318282783 106 225 72 
-0.127328411 -0.535636902 -0.0524279103 100 96 182 
0.156018391 2.27615714 0.0153967766 121 236 209 
0.513873577 2.29553461 -0.324505508 148 237 70 
0.21933423 -0.0012461337 -0.226505294 126 123 110 
0.275641918 1.32543647 -0.180684 130 189 129 
-0.288224608 -0.320619792 -0.080654636 87 107 170 
-0.197583362 -1.30078852 -0.139451653 94 58 146 
-0.0618507192 -0.72093159 -0.0371360853 105 87 188 
-0.818912685 2.34923768 -0.0867956951 47 240 167 
-1.36140835 2.34724903 -0.211449966 6 240 116 
-0.684259117 2.43606305 -0.341367871 57 244 63 
-0.883905172 1.95146215 -0.138897941 42 220 146 
0.244146809 1.6476748 -0.185983494 128 205 127 
0.148576185 0.825208426 0.00745228073 121 164 206 
-1.08693373 2.42414737 -0.267551988 27 244 93 
0.199268073 -2.37701964 -0.0784258544 124 5 171 
0.831950068 2.01998615 -0.0760896206 173 224 172 
-0.616825581 1.99822736 -0.251395553 62 223 100 
0.0965622216 1.29022276 -0.0412784852 117 187 186 
0.952432215 2.1006515 -0.284316033 182 228 86 
0.0145347584 2.46227479 -0.167201102 110 246 134 
-0.476006627 2.39959598 -0.155868277 73 243 139 
0.157471076 -1.26846409 -0.0777403638 121 60 171 
0.254872084 -0.71505934 -0.28002426 129 87 88 
-0.129988194 -0.596052289 -0.0438916273 99 93 185 
0.159459651 -0.312966913 -0.337816447 121 107 64 
0.30340299 2.1102438 -0.255762964 132 228 98 
1.05558336 1.97851515 -0.402074754 190 222 38 
0.236972183 1.36704874 -0.147411183 127 191 142 
0.206370458 1.48977733 -0.342411667 125 197 62 
-0.00106972549 1.80470586 -0.298407048 109 213 80 
-0.942506194 2.12261534 -0.419772267 38 229 30 
-0.283883601 2.05385923 -0.134685293 88 225 148 
0.237111628 -1.26799023 -0.267829597 127 60 93 
-0.0953461304 0.234788075 -0.0687143654 102 135 175 
0.323853493 1.12941062 -0.196627811 134 179 122 
0.233805835 2.40350986 -0.0524681956 127 243 182 
-0.251036227 -1.93878984 -0.380070448 90 26 47 
-0.154142961 -0.224035487 -0.06853237 98 112 175 
0.760827184 1.7874043 0.0151034212 167 212 209 
-1.00773561 2.45773292 -0.316752255 33 245 73 
0.0861733481 1.85549724 -0.121264935 116 215 153 
0.250564754 0.206175104 -0.335610867 128 133 65 
0.18963933 -1.04706085 -0.0627081245 124 71 177 
0.167205155 1.93565261 -0.186038554 122 219 127 
0.959327817 1.97748077 -0.208641216 182 221 117 
-0.834549904 1.97528982 -0.134293631 46 221 148 
-0.000555952254 -0.407708526 -0.199815318 109 103 121 
1.73977828 1.71615267 -0.272228479 242 208 91 
-0.176101685 -1.5136739 -0.188234538 96 48 126 
0.227251202 -1.62229645 -0.0854222924 127 42 168 
0.121398598 1.39683545 -0.441566825 118 193 21 
0.978885472 2.01933694 0.0322433114 184 224 216 
-0.0683354959 1.53093898 -0.331125081 104 199 67 
-0.245338738 -1.35860395 0.109367803 91 55 248 
-0.0899350196 0.177111611 -0.24800159 102 132 101 
0.0103487251 -0.847746253 -0.375384212 110 81 49 
-0.229254961 2.32964158 -0.116345264 92 239 155 
-0.173301384 -0.308450788 -0.284417063 96 108 86 
-0.945496202 2.37056398 -0.100330509 37 241 162 
-0.593344569 2.31643367 -0.163581893 64 238 136 
-0.0497504622 -1.95007181 -0.131906837 105 26 149 
0.446368039 1.82603729 -0.0794063732 143 214 170 
-0.137760103 0.497502923 -0.298400104 99 148 80 
0.082106635 2.09396029 0.109491698 115 227 248 
-0.0643062368 0.508022308 -0.366558075 104 148 52 
-0.0471706763 0.801181376 -0.274951428 106 163 90 
-1.16776276 2.31429672 -0.0627073348 20 238 177 
-1.13837218 2.00568843 -0.149431974 23 223 142 
0.0842170492 2.06831646 -0.258584559 116 226 97 
-0.280804366 -0.940525532 -0.322416127 88 76 70 
0.140645579 -0.423657089 0.113465719 120 102 250 
1.04416478 1.88773465 -0.255783975 189 217 98 
-0.586062074 1.90354812 -0.342455596 65 218 62 
1.31378376 1.761392 -0.078219749 209 211 171 
-1.02421391 2.22995043 -0.0757626668 31 234 172 
0.389335364 1.87205458 -0.311917126 139 216 75 
-0.0307749286 -1.66098821 -0.133021399 107 40 148 
-0.911807358 2.38977575 -0.229348198 40 242 109 
0.173164904 1.04771411 -0.255105615 122 175 98 
0.59034276 1.91641545 -0.214751512 154 218 115 
-0.283835739 1.63125491 -0.124950044 88 204 152 
1.9008044 1.81628168 -0.265110224 254 213 94 
1.41495872 2.06844425 -0.165424824 217 226 135 
-0.124127038 0.0645166412 -0.35820812 100 126 56 
-0.905326426 2.17857695 -0.284112364 40 232 86 
-0.749698102 1.87139571 -0.067388013 52 216 175 
-0.569770873 2.25779128 -0.164285108 66 235 136 
-0.00974699855 2.1176765 0.0227922574 109 228 213 
-0.190710887 2.42563367 -0.218853638 95 244 113 
-0.259908795 2.38716936 -0.177472323 89 242 130 
0.268063158 1.78611231 -0.217169806 130 212 114 
0.0892178789 -0.251084089 -0.273649544 116 110 91 
0.169975191 -2.14736676 -0.305293292 122 16 78 
0.215573743 -1.94729865 -0.354494989 126 26 57 
0.306558639 -2.3000555 -0.465204388 133 8 12 
-0.123241499 1.70028651 -0.168467686 100 208 134 
0.0795994774 2.22863579 -0.139480188 115 234 146 
-1.07090998 1.91842067 -0.348961085 28 219 60 
-1.14753282 2.30129194 -0.13588053 22 238 147 
0.257928103 -0.791468322 -0.218429893 129 84 113 
-0.0817343965 1.78289211 -0.286325991 103 212 85 
-0.139021635 -0.890997946 -0.1393307 99 79 146 
-0.785098314 1.95776165 0.0085294228 50 221 207 
0.0477850623 -1.8048842 -0.168447241 113 33 134 
-0.0295088682 -2.23872948 -0.19390583 107 11 123 
0.00184470776 2.18423152 -0.0721512958 109 232 173 
0.240345493 -2.15436697 -0.0667627081 128 16 176 
0.330273777 1.78984034 -0.0819092989 134 212 169 
-0.134804919 1.00678313 -0.292443991 99 173 83 
-0.0822793841 -0.232584223 -0.214982063 103 111 115 
-0.118906736 -1.28967679 -0.377159894 100 59 48 
1.28371537 2.03324652 -0.190806761 207 224 125 
-0.551295459 1.85946667 -0.164472878 67 216 135 
1.10367489 1.79263723 -0.208605438 193 212 117 
-0.0375720896 2.18039966 -0.373105377 106 232 50 
0.10090284 -2.05125308 -0.264987826 117 21 94 
0.106644675 -0.857324421 -0.301132202 117 80 79 
-0.135958016 2.08677816 -0.356226861 99 227 57 
0.377964109 1.8558569 -0.0391594134 138 215 187 
0.148787379 -2.36095095 -0.440701962 121 5 22 
-0.998026609 1.92643774 -0.318262607 33 219 72 
-1.03951466 2.32956648 -0.345237046 30 239 61 
-0.692861915 2.252033 -0.178789422 57 235 130 
0.173958138 0.0493689477 -0.233790278 122 125 107 
-0.285792202 2.00036192 -0.149255678 88 223 142 
0.163924813 2.4812994 -0.130628914 122 247 149 
-0.163067192 0.333334237 -0.265948862 97 140 94 
-0.00695930189 -0.946225345 -0.0862926245 109 76 168 
0.323996812 2.02191544 -0.137397543 134 224 147 
-0.405010402 2.37004161 -0.0419147983 78 241 186 
-0.261534572 -1.4862709 -0.290966392 89 49 83 
-0.0789040104 -0.0923113599 -0.127085179 103 118 151 
0.0744224638 1.83766997 -0.173059881 115 215 132 
0.423981696 1.8753376 -0.0643031746 142 216 177 
-0.229079723 -0.300955951 -0.195557505 92 108 123 
0.237157315 0.0974018574 -0.315577745 127 128 73 
0.0237643644 0.827215731 -0.47648403 111 164 7 
0.4045946 2.06530094 -0.151722163 140 226 141 
1.22956622 1.81643832 -0.00605564518 203 213 201 
-0.24185133 1.98745406 -0.476518691 91 222 7 
0.246966645 -1.35224283 -0.189169899 128 56 125 
-0.0150135634 -0.0161878578 0.110464707 108 122 249 
0.110336572 0.984656394 -0.172476903 118 172 132 
1.01056576 2.02407122 -0.47885859 186 224 6 
0.667412877 2.00374722 0.0280680936 160 223 215 
-0.410846293 2.11933947 -0.0412219241 78 229 186 
0.913941562 1.92782032 -0.476629168 179 219 7 
0.0316758715 -2.36506104 -0.385892034 112 5 44 
0.103648871 -0.91783613 -0.214672655 117 77 115 
0.235303238 1.24744308 -0.127963886 127 185 150 
0.371638894 2.08025599 -0.32568115 138 227 69 
1.50261867 1.82423484 -0.107061103 224 214 159 
0.36801374 1.65269494 -0.0519416817 137 205 182 
-0.0518395677 1.6456337 -0.109763011 105 205 158 
0.328440428 -0.843520999 -0.334149897 134 81 66 
0.133661866 -1.6678431 -0.124319166 119 40 152 
-0.0362604484 -0.80386287 -0.0464192517 106 83 184 
0.139597774 2.20016766 -0.357667655 120 233 56 
-0.317383289 1.6804471 0.112832412 85 207 250 
-1.22463143 2.38232517 -0.27844438 16 242 89 
0.331950307 1.24470496 -0.00418393174 135 185 201 
-0.15943867 -0.792390287 -0.327569395 97 84 68 
0.0433315933 -2.10060072 -0.478807181 113 18 6 
0.00710724015 0.437790483 0.051614441 110 145 224 
-0.117376752 -0.588786304 -0.362295389 100 94 54 
-0.662034929 2.13527918 -0.182061046 59 229 128 
-0.683954179 2.2381978 -0.392103434 57 234 42 
-0.316123128 0.00934418198 -0.189176798 85 123 125 
0.559247792 2.43935728 0.0536436439 152 245 225 
0.107422359 0.932311952 -0.188419312 117 169 126 
0.0993322358 -0.986038268 -0.2195189 117 74 113 
0.720381737 2.43012047 -0.146780342 164 244 143 
0.0933074653 2.2403338 -0.380961806 116 235 46 
0.18745479 0.883921325 -0.149016082 124 167 142 
-0.376154929 -1.92818248 -0.301986754 81 27 79 
-1.33831155 1.88959134 -0.28180477 7 217 87 
-0.0188368987 2.34780169 0.108893082 108 240 248 
-0.0558708422 1.77044785 -0.387487322 105 211 44 
0.215682298 1.79044867 -0.0761576146 126 212 172 
0.143290728 -0.0341616161 -0.149412647 120 121 142 
0.355442882 2.13896704 -0.244737431 136 230 102 
-1.06535244 2.04872823 -0.377729505 28 225 48 
-1.09742475 2.01399279 -0.476038605 26 223 7 
0.404879183 1.97029138 0.0186986178 140 221 211 
-0.0637403131 1.4105196 -0.0484071672 104 193 183 
0.0432540029 -2.13001943 -0.329187155 113 17 68 
1.10416591 1.92158222 -0.239411697 193 219 105 
-0.0156097636 0.312926024 -0.258831173 108 139 97 
-0.181072325 1.27095723 -0.484235257 95 186 4 
-0.37590307 1.76336086 -0.184891 81 211 127 
0.218215406 -1.07407176 -0.345282286 126 69 61 
1.44688463 1.88410223 -0.135589615 219 217 147 
0.104582876 -0.584069967 -0.220674261 117 94 112 
-0.82594496 2.48021412 -0.101187378 46 247 162 
-0.0138223832 -2.0857892 -0.137891859 108 19 146 
0.320435882 0.501463175 -0.329684347 134 148 68 
-0.391624928 2.36861801 0.0280734263 79 241 215 
-0.135990724 0.792239189 -0.211777627 99 162 116 
0.437587708 1.94902813 -0.0285656732 143 220 191 
0.201992288 2.01228094 -0.38756299 125 223 44 
0.140887752 0.566483319 -0.202190414 120 151 120 
0.183281779 0.134977803 0.115183204 123 130 251 
1.07398105 1.75659764 -0.22636725 191 210 110 
0.436104476 2.0553453 -0.231704742 142 225 108 
-0.126839057 -0.599935174 -0.180633917 100 93 129 
-0.0570366755 -1.18818223 -0.408060431 105 64 35 
0.189693287 2.40164661 -0.122034825 124 243 153 
-0.127984464 -0.0476226397 -0.305733621 100 121 77 
-1.14744675 1.94620895 -0.291145056 22 220 83 
-0.285287112 2.5511353 0.0500256754 88 250 224 
0.0270331725 -1.08386576 -0.0866132602 111 69 168 
0.0414304212 2.06065655 -0.487417221 112 226 3 
-0.269339144 0.622432351 0.0193690024 89 154 211 
1.63041341 1.93196404 -0.218914509 233 219 113 
1.08670115 1.87139952 0.108617157 192 216 248 
-1.3833853 2.41483665 -0.406111479 4 243 36 
0.108604483 2.31687856 0.0435311273 118 238 221 
-0.467494547 1.86926281 -0.0400060266 74 216 187 
0.159722567 -2.08446813 -0.121718258 121 19 153 
0.342589051 1.71659577 -0.102654576 135 209 161 
-0.105955817 -0.854060233 -0.229346067 101 80 109 
-1.16744196 2.04511118 -0.137905747 20 225 146 
-0.0974115729 0.434246451 -0.00293145585 102 145 202 
0.988104224 1.74461448 -0.177284151 184 210 130 
0.00821444765 1.56466639 -0.0950941518 110 201 164 
-0.571190357 2.34096074 0.010179067 66 240 207 
-0.604251266 2.2767849 -0.222182214 63 236 112 
0.856147647 2.10357904 -0.139126763 174 228 146 
0.0752860755 -0.941913009 -0.311368942 115 76 75 
0.247377872 -0.73868835 -0.102535352 128 86 161 
-0.133044377 1.68463027 -0.0462552346 99 207 184 
0.171963066 0.832983315 -0.0587605312 122 164 179 
0.0485342555 2.02648425 -0.0998004004 113 224 162 
-0.908903301 2.14868307 -0.103406824 40 230 161 
-0.00146493537 -0.143923372 -0.201604143 109 116 120 
0.328660697 0.00235854671 -0.065378353 134 123 176 
-0.894580007 1.79354131 -0.0165347811 41 212 196 
0.487436026 2.03411055 -0.173382163 146 224 132 
-0.14904274 1.86613286 -0.0547426529 98 216 181 
-0.118765675 -1.52137554 -0.187821165 100 47 126 
-0.689839661 2.37027407 -0.177770168 57 241 130 
0.548774362 1.93819368 -0.118286043 151 220 154 
-0.303395122 -1.52053773 -0.00171046611 86 47 202 
1.35715532 1.76901269 -0.370334774 212 211 51 
0.175615102 2.34121776 -0.34706983 123 240 60 
0.934155226 2.00249457 -0.11701452 180 223 155 
-0.179914296 -0.859973967 -0.199992925 96 80 121 
1.61620402 1.8315767 -0.199182615 232 214 121 
0.197502077 -1.05640566 0.071420148 124 70 233 
0.0534645431 -0.516227663 -0.264205784 113 97 94 
0.33137539 0.573428452 -0.140153944 134 152 145 
1.36526227 1.63159633 -0.0176060684 213 204 196 
0.189336792 -1.49002206 0.0117247934 124 49 208 
0.0544934794 -2.27577543 -0.198956504 113 10 121 
-0.116418235 0.926334202 -0.0889533237 100 169 167 
-0.13395153 2.55317497 -0.065732196 99 250 176 
-0.397761762 2.43737531 -0.065962404 79 244 176 
0.797067165 2.13814116 -0.0396507047 170 230 187 
0.838261902 2.03467011 -0.207599699 173 224 118 
-1.01004851 2.27823329 -0.0417639092 32 236 186 
1.45155799 1.9698801 -0.100161381 220 221 162 
0.0992879197 2.0055337 -0.179960027 117 223 129 
-1.4355402 2.35014296 -0.104838528 0 240 160 
-0.24417381 -0.714743018 -0.120276302 91 87 154 
-0.708533108 2.1701386 -0.205826789 55 231 118 
-1.28185058 2.43777156 -0.435716659 12 244 24 
-0.841683209 2.03108549 -0.125824079 45 224 151 
0.160223722 2.43498611 -0.184609547 121 244 127 
-0.0540668853 0.56416446 0.11781998 105 151 252 
0.125219703 2.41969061 -0.0981884375 119 244 163 
0.264128655 2.12199664 -0.025235625 129 229 193 
0.167412564 -1.66318107 -0.147930428 122 40 142 
1.3393836 1.86348677 -0.290439039 211 216 84 
-0.147108659 -0.461977184 -0.0911827534 98 100 166 
0.212621629 -1.80836725 -0.192634553 125 33 124 
-1.25025439 2.24781823 0.111124292 14 235 249 
0.199775845 -1.83010876 0.0428068116 124 32 221 
-0.307089001 1.70318484 -0.0395753682 86 208 187 
1.18435705 1.98424816 -0.128327638 199 222 150 
-0.328461885 2.50141454 -0.121586531 84 248 153 
0.0182458963 -0.633060634 -0.317045897 111 91 73 
-0.192001477 -0.470858991 -0.418326974 95 100 31 
0.142007798 -2.23116946 -0.0278904159 120 12 192 
0.229178622 1.50234437 -0.412957668 127 198 33 
-0.818295896 2.4670608 -0.188418806 47 246 126 
-1.24139738 2.28086472 -0.0878277868 15 237 167 
-0.472616404 2.07991719 -0.0826463178 73 227 169 
-0.316641033 2.35874867 -0.263522208 85 240 95 
1.31172419 1.95617998 -0.0770285279 209 220 171 
-0.0579405613 -1.02921784 -0.177827701 105 72 130 
-0.30888918 0.570270061 -0.186395362 86 151 126 
-1.30513692 2.09348822 -0.195938274 10 227 123 
0.109057441 -2.00698447 -0.372778535 118 23 50 
0.234769195 1.58071637 -0.358007431 127 202 56 
-0.37640202 -0.349847138 -0.0518586412 81 106 182 
-0.365692675 2.29775095 -0.375154704 81 237 49 
-0.286273688 -0.903352201 -0.402995884 87 78 37 
-0.250583291 0.750073314 -0.22195445 90 160 112 
-0.990907848 2.32519007 -0.238181621 34 239 105 
0.2822662 2.54671979 -0.196148902 131 250 122 
-0.104344815 1.57473314 -0.0715082511 101 201 174 
-0.0199338216 -1.81292403 -0.200532854 108 33 121 
0.349539876 1.92773867 -0.30963406 136 219 76 
-0.164402947 0.967740893 -0.100508735 97 171 162 
-0.376542896 -1.5166049 -0.300997674 81 47 79 
-0.088748768 0.0474550277 -0.404307425 102 125 37 
1.10567784 2.15949273 -0.382422268 193 231 46 
-0.245375797 -1.31159532 -0.114381067 91 58 156 
0.16654022 0.548819363 -0.391992003 122 150 42 
0.327076256 -0.726369381 -0.331067383 134 87 67 
0.948049426 1.88930535 -0.365933955 181 217 53 
-0.0163084157 0.822063863 -0.0823910758 108 164 169 
1.20677209 1.66353464 -0.117176861 201 206 155 
-0.897449553 2.05809498 -0.322610646 41 226 70 
-0.117728867 1.10975051 -0.389625698 100 178 43 
-0.243635923 1.834288 -0.394039899 91 214 41 
0.184847966 0.0747044235 -0.0646528751 123 127 177 
0.0951371044 -2.22564268 -0.108973779 116 12 158 
0.105461515 -0.0682386383 -0.163288578 117 120 136 
1.42336869 1.88546228 0.0256543495 218 217 214 
0.75865823 1.93426192 -0.287214249 167 219 85 
0.396122843 2.02960587 -0.246278197 139 224 102 
-0.695341706 2.15614319 -0.254879802 56 230 98 
0.00484728301 1.90607131 -0.153412029 110 218 140 
0.066449061 -1.67721522 -0.385450453 114 39 45 
-1.26161444 2.16055369 -0.255535066 13 231 98 
-0.085899815 -1.18552244 -0.188918918 103 64 125 
-0.894961059 2.27017927 -0.118035577 41 236 155 
-0.190838918 -0.838413954 -0.317649662 95 81 72 
-0.240043521 -1.79880857 -0.119278044 91 33 154 
-0.183439851 -0.69164449 -0.245624572 95 89 102 
-0.263199002 -1.02561176 -0.165112138 89 72 135 
0.136763781 1.586321 -0.321933061 120 202 71 
-0.955042362 2.37372279 -0.0389081724 37 241 187 
0.104611933 1.85546255 -0.23158519 117 215 108 
-0.473865896 2.12503982 0.0420231894 73 229 220 
0.302457005 1.23466849 -0.157009751 132 184 139 
-1.44322985e-05 -1.87020135 -0.244618431 109 30 103 
0.0898495913 -2.03989482 -0.216982543 116 21 114 
1.30611408 1.87032914 -0.30573824 209 216 77 
0.903744519 1.99657834 -0.28310591 178 222 87 
0.0209565386 -1.53228974 -0.259723604 111 47 96 
-0.0303976499 -1.51878643 -0.0510971472 107 47 182 
0.0226137452 0.312193751 0.114100277 111 139 250 
-1.15650356 2.12436008 -0.038929563 21 229 187 
-0.0500481687 -0.766782761 -0.0739136264 105 85 173 
-0.081525296 -1.82832181 -0.156959802 103 32 139 
-0.112877443 0.168404013 -0.135269925 101 131 147 
-0.157637224 -1.18723142 -0.169351086 97 64 133 
-0.121488921 -1.27656436 -0.174449831 100 59 131 
-0.0880135372 0.962879837 -0.0630172044 103 171 177 
-0.0115776407 -1.27565122 -0.39275527 108 59 42 
-0.731060684 2.02288699 -0.0934144408 54 224 165 
0.290346324 0.618598759 0.107391372 131 154 247 
-0.109361783 2.25861931 0.10924229 101 236 248 
-1.14681768 2.47161365 -0.225134507 22 246 111 
0.114883438 -0.353974044 -0.128758609 118 105 150 
0.0215837583 0.0464377105 -0.0367545672 111 125 188 
-0.95476681 1.89719558 -0.366088897 37 218 53 
0.0328001641 -1.07631648 -0.266911417 112 69 93 
-1.23856533 2.27416325 -0.0305361506 15 236 191 
-0.577608407 1.88047755 -0.0425164513 65 217 186 
-0.18633607 2.42104197 -0.171696723 95 244 133 
-0.360712141 1.76691437 -0.282541543 82 211 87 
0.207710668 2.26473403 -0.132801309 125 236 149 
-0.982996225 1.86829448 -0.0680319443 34 216 175 
0.506275296 1.80092549 0.0377834812 148 213 219 
0.568870962 1.82704282 -0.207892463 153 214 118 
1.57862079 1.89700341 -0.31674549 229 217 73 
-0.288763106 2.48692632 0.1133582 87 247 250 
-0.0600590892 1.80605793 -0.318510652 105 213 72 
0.0141912177 0.895581067 -0.270920873 110 168 92 
0.136197224 1.89729846 -0.222953156 120 218 111 
0.860844672 1.87626672 -0.374736428 175 216 49 
-0.156504244 -1.68376112 -0.117523402 97 39 155 
-0.946337163 2.41203713 -0.118225254 37 243 155 
-0.0698102191 -0.332900077 -0.111661606 104 106 157 
-0.691439867 2.13825965 -0.10774187 57 230 159 
-0.390020996 2.3322854 -0.121772274 80 239 153 
1.21612406 1.82758904 -0.356422633 202 214 57 
-0.201606289 -2.0245111 -0.053190574 94 22 181 
-0.156332061 -1.90508068 -0.352641076 97 28 58 
-0.514953375 2.4217298 -0.218390837 70 244 113 
-0.208947584 -0.0462846383 -0.117377713 93 121 155 
-0.101962633 2.06211305 -0.460152417 101 226 14 
0.892129004 2.15961862 -0.120978132 177 231 153 
-0.0781191215 0.55689466 -0.479761481 103 151 6 
0.222382367 -1.0986675 -0.182283282 126 68 128 
1.420838 1.63004673 -0.403347343 217 204 37 
1.05025685 1.94885564 -0.140186638 189 220 145 
0.181340739 0.00775206741 -0.476949573 123 123 7 
-0.747299433 1.92633128 -0.257691622 52 219 97 
0.329768211 -1.19273531 -0.13290976 134 64 148 
-0.761503875 1.9937737 -0.0511013791 51 222 182 
-0.133948416 0.12573573 -0.201737806 99 129 120 
0.151412413 -2.17965984 -0.0465510525 121 14 184 
0.134158477 -1.56866968 -0.0254968777 119 45 193 
0.0161027126 0.29738614 -0.193864375 110 138 123 
-0.0804915056 -0.570093036 -0.0528155081 103 95 181 
-0.0743204281 -0.787937582 -0.26800406 104 84 93 
-0.551783085 1.75435948 0.104867026 67 210 246 
-1.12741315 1.77593291 -0.19618994 23 211 122 
0.0983127207 0.455352575 -0.404976875 117 146 37 
0.0821446851 -0.832107902 -0.357483506 115 82 56 
0.0518603437 1.16795444 -0.451596171 113 181 17 
0.0290365182 -1.27634025 -0.364428192 111 59 53 
0.191075847 2.01187348 -0.123072423 124 223 153 
-0.934032917 2.02250504 -0.331883609 38 224 67 
0.241610125 0.632748663 -0.28359136 128 155 86 
0.231604755 1.89119542 0.125378728 127 217 255 
-0.330666065 0.0949523449 0.0134117026 84 128 209 
0.0465699509 -0.244827643 -0.208299175 113 111 117 
-0.247815236 -1.17406154 -0.198554188 90 65 121 
-0.131563023 1.64614475 -0.249476016 99 205 101 
-1.15346563 2.13718724 -0.176234469 21 229 131 
-1.11523771 1.89119196 -0.375408709 24 217 49 
-0.486819983 1.99047685 0.109516859 72 222 248 
-0.00766265765 -1.9806118 -0.0550651103 109 24 180 
0.205493584 -0.535309017 -0.410017222 125 96 34 
0.231346056 0.293977708 -0.222559169 127 138 112 
-0.204103366 1.14949477 -0.0691411346 94 180 175 
-0.121361807 -1.06663263 -0.210892037 100 70 116 
0.210288852 -1.80740237 -0.122783378 125 33 153 
-0.895027936 2.21973014 -0.1043308 41 234 160 
0.557934284 2.33884573 -0.161059171 152 240 137 
0.13542296 -0.136616036 -0.174135119 120 116 132 
0.0784763023 1.15926528 -0.36779359 115 181 52 
-0.181923181 2.55421305 -0.0153578501 95 250 197 
0.272436857 -0.629377663 -0.194085494 130 92 123 
-1.01357782 2.08904052 -0.450523108 32 227 18 
0.241066471 1.70518303 -0.0567793436 128 208 180 
1.28696394 1.76449168 -0.126951844 207 211 151 
0.23560144 -0.0621139705 -0.120506629 127 120 154 
-0.0410987586 -1.74692595 -0.128798231 106 36 150 
0.109974265 0.925202608 -0.254155666 118 169 99 
0.110258445 -2.17179203 -0.0152758416 118 15 197 
-1.19571185 2.55182314 -0.297588408 18 250 81 
0.225163519 1.19319046 0.0213155672 126 182 212 
-0.0446199402 1.39065838 -0.203739747 106 192 119 
-0.0859999955 -0.452435255 -0.267320812 103 100 93 
1.32425928 1.90592706 -0.0407612324 210 218 186 
-0.0984583572 -0.0568313226 -0.0838326514 102 120 169 
-0.17961289 1.90973353 -0.00763968378 96 218 200 
-0.134824678 0.220743358 -0.387330115 99 134 44 
-0.143697217 1.26536345 -0.262754381 98 186 95 
0.859314024 2.13610053 -0.183052972 175 229 128 
-0.196147889 -1.6151824 -0.348585546 94 43 60 
0.0743107796 -2.15933108 -0.260814369 115 15 96 
-1.13253462 1.90206814 -0.149421111 23 218 142 
0.0178127829 1.65492535 -0.0838411525 111 205 169 
-1.1345315 1.83289659 -0.297060043 23 214 81 
0.398912668 1.94856691 -0.188632667 140 220 126 
0.17435734 -0.524786711 -0.0296303611 123 97 191 
0.758891821 1.97635674 -0.326032698 167 221 69 
-1.03203976 1.95732319 -0.0394856855 31 220 187 
0.115003474 1.49304795 -0.0571081117 118 197 180 
-0.402279735 2.28238511 0.110100761 79 237 248 
-0.077104196 -0.55757767 -0.271285206 103 95 92 
0.143296033 0.481355578 -0.478763223 120 147 6 
0.0199819133 1.20677662 -0.165718704 111 183 135 
1.04082751 2.06964588 -0.141465828 188 226 145 
0.151399031 1.86097622 -0.362261742 121 216 54 
0.12206164 -2.46890998 -0.210832626 119 0 116 
0.446114272 2.31017542 -0.0862475485 143 238 168 
1.47385037 1.79794788 -0.0803968534 221 213 170 
0.32686162 -0.915703535 -0.307394624 134 77 77 
-0.11290022 -1.66185749 -0.0326361358 101 40 190 
-0.310894042 1.72164524 -0.0965674371 86 209 163 
0.551553726 1.75637543 -0.0516413525 151 210 182 
-0.222612798 2.54779005 -0.334533423 92 250 66 
-0.854952037 1.99636936 -0.223598942 44 222 111 
0.250564694 -0.261042327 -0.295333177 128 110 82 
0.711524367 1.85353494 -0.324463665 163 215 70 
0.244977623 2.34451151 -0.219147637 128 240 113 
0.809884369 2.11568618 -0.166493312 171 228 135 
0.445236921 1.812428 -0.000685638632 143 213 203 
0.328605771 -2.007236 -0.255413651 134 23 98 
-1.18944061 2.36856651 -0.283176273 19 241 87 
-0.0931507945 1.32079554 -0.159571692 102 189 137 
0.121256448 -0.924826384 -0.0131078009 118 77 198 
-1.10156584 2.47421408 -0.190454692 25 246 125 
0.193938628 -0.887444437 -0.32374227 124 79 70 
-0.159823805 -0.74832356 -0.392121613 97 86 42 
-0.106854305 -1.24581623 -0.0542934351 101 61 181 
-0.107683033 0.236031771 -0.0224759765 101 135 194 
0.211408481 -1.99616659 -0.270070016 125 24 92 
0.232933789 -2.04970336 -0.278472483 127 21 89 
-0.19425033 2.09015036 -0.306586474 94 227 77 
-0.213847592 -0.727728844 -0.345066637 93 87 61 
-0.150965855 0.771767318 0.00290518254 98 161 204 
1.35720539 1.78958654 -0.264728069 213 212 94 
-0.917244613 2.34945726 -0.263006061 39 240 95 
-0.239678517 1.07583928 -0.00446708687 91 177 201 
-0.125700697 -1.84070361 -0.151034251 100 31 141 
0.0647971183 0.573700249 -0.140227735 114 152 145 
-0.104072779 -2.04871655 -0.0816574693 101 21 170 
-0.238339201 1.63492048 -0.0869727358 91 204 167 
-0.69754535 2.10070348 0.115986027 56 228 251 
0.263525128 -0.488632321 -0.209572017 129 99 117 
-0.909972787 2.04297495 -0.277611643 40 225 89 
-0.0787616521 2.30135846 -0.024005726 103 238 193 
-1.00158179 1.97263789 -0.476894498 33 221 7 
-0.373646408 -2.03000712 -0.226865187 81 22 110 
0.120889984 1.09396052 -0.184271038 118 177 127 
-0.266448379 1.12095368 -0.447697818 89 179 19 
-0.707701385 2.2518146 -0.003127428 55 235 202 
1.80074179 1.86218548 -0.11600697 246 216 155 
-0.278541088 2.3572433 -0.0788667127 88 240 171 
-0.0956407189 1.63002324 -0.0976231769 102 204 163 
-0.103244096 -0.186029345 -0.154483914 101 114 140 
-0.228768438 -1.54959536 -0.0891654938 92 46 166 
-0.277672499 -1.26962137 -0.0959138647 88 60 164 
-0.117265277 1.25545895 -0.348482639 100 186 60 
-0.0565993935 1.14977801 -0.156720787 105 180 139 
-0.078515932 1.46784413 -0.33690691 103 196 65 
-0.0615751185 -0.430845946 0.108530961 105 102 248 
0.254667193 1.27089036 -0.0286738612 129 186 191 
0.514793217 2.13212585 -0.248982042 148 229 101 
1.08026361 2.10660768 -0.157203689 191 228 138 
-0.112808362 -0.883973837 0.116218381 101 79 251 
-0.152388364 1.17047739 -0.0415247269 98 181 186 
0.175883874 -1.61821735 -0.11027047 123 42 158 
0.12303783 -1.18809724 -0.0574133284 119 64 180 
-0.40823853 1.88722754 -0.20167847 78 217 120 
0.844358206 2.0166595 -0.159869358 173 223 137 
-0.216571704 0.700451255 -0.173578382 93 158 132 
-0.101535589 0.786395371 -0.168015257 102 162 134 
-0.444727182 2.41210318 0.016504176 75 243 210 
0.0292969216 -1.8426224 -0.279936284 111 31 88 
-0.126916811 -0.833238065 -0.0978808403 100 81 163 
-0.0753273889 2.54670954 -0.302978873 104 250 78 
0.116699077 -2.13974333 -0.250335425 118 16 100 
0.241362393 1.3049289 -0.254460752 128 188 98 
-0.295259386 1.99522662 -0.0838939473 87 222 169 
-0.284926057 -0.10467466 -0.10494826 88 118 160 
-0.761912823 1.92507672 -0.0703948811 51 219 174 
0.129305959 1.44147658 -0.125991449 119 195 151 
0.790058851 2.00721407 -0.30837512 169 223 76 
0.165560946 -0.446234912 -0.204836205 122 101 119 
-0.190993682 1.40517247 -0.0287319478 95 193 191 
0.0354171097 -2.04066515 -0.39058283 112 21 42 
0.446807355 2.41599464 -0.288960606 143 243 84 
0.259740591 -0.57287401 -0.169188797 129 94 134 
-0.0405964442 -0.590360343 -0.266692579 106 94 93 
-0.652849257 2.13651109 -0.350730896 60 229 59 
-0.178396448 -1.28653789 0.0264563337 96 59 214 
-0.241052926 -1.90914321 -0.193947896 91 28 123 
0.159443781 0.545236528 -0.15966107 121 150 137 
1.26081097 1.83847451 -0.319743007 205 215 72 
0.0126129221 -1.84799385 -0.0399786644 110 31 187 
0.260511488 0.480637908 -0.263974428 129 147 95 
0.197623879 -1.02741647 -0.251536876 124 72 100 
-0.30061245 -1.02066278 -0.261969447 86 72 95 
0.199239776 -1.5079838 -0.353817344 124 48 58 
0.0636715367 0.957628489 -0.355594724 114 171 57 
0.000737668714 1.85290158 0.111422747 109 215 249 
-0.0548831299 2.07895279 -0.274487406 105 227 90 
-0.804664314 1.8793993 -0.0724534914 48 217 173 
-0.396015912 1.91062236 -0.0393854789 79 218 187 
-0.879852653 1.80029249 -0.328665614 42 213 68 
-0.579473317 2.4945209 -0.294224322 65 247 82 
-0.233322456 -0.416585773 -0.204173595 91 102 119 
-0.173885986 2.13201189 -0.360197783 96 229 55 
1.06531227 1.76137018 -0.163850367 190 211 136 
-0.0792374313 -0.448632896 0.0177438911 103 101 210 
-0.0407183617 1.80909467 -0.194668755 106 213 123 
0.160049543 2.25580788 -0.17479974 121 235 131 
-0.0701153725 -1.53995872 -0.0696674958 104 46 174 
-0.460259587 2.54407096 -0.324863195 74 250 69 
-0.110451087 -1.78969216 -0.0193156637 101 34 195 
-0.0171687026 -1.38412547 -0.103371017 108 54 161 
0.271070749 -1.36637759 -0.223131627 130 55 111 
-0.271956325 1.84025931 0.027152922 89 215 214 
0.0204808172 0.841249645 -0.161861449 111 165 137 
-0.270421743 -1.60015535 -0.374893427 89 43 49 
0.596718192 1.92814791 -0.136376604 155 219 147 
-0.118062407 0.334923714 -0.190773666 100 140 125 
0.895408988 1.83809626 -0.0305021871 177 215 191 
0.159504548 0.532268643 -0.0324695297 121 150 190 
1.72272015 1.83303165 -0.148453712 240 214 142 
0.11681284 0.416727364 -0.25981456 118 144 96 
0.468107611 1.79161382 -0.277573943 145 212 89 
-0.393292844 2.52010608 -0.483744889 79 249 4 
-1.38704038 2.15143299 -0.296408296 4 230 81 
0.0794972777 -1.95131254 -0.286854088 115 26 85 
-0.204288155 0.231259719 -0.282428265 94 135 87 
0.0319490805 1.45449877 -0.323833495 112 195 70 
-0.283209562 -0.901173592 -0.216498762 88 78 114 
-0.0115952818 0.702763855 -0.326474994 108 158 69 
-0.0298326928 0.967049062 -0.14787142 107 171 142 
-0.1860504 2.06790304 -0.15397054 95 226 140 
-0.37138015 -1.44558001 0.0112269726 81 51 208 
0.154046312 0.00834657438 -0.378695548 121 123 47 
-0.160143748 -0.0833884925 -0.220798805 97 119 112 
-0.913203359 2.44517803 -0.163955674 40 245 136 
-0.0310063884 -0.344528228 -0.419184536 107 106 31 
-0.0459825136 -1.57476532 0.0574845187 106 45 227 
-0.0888931528 -1.47724998 -0.12670967 102 49 151 
0.18463026 -0.786568642 -0.0233135894 123 84 194 
0.0397071354 -0.0706164539 -0.173342854 112 119 132 
-0.0603524372 2.24172473 -0.201020822 105 235 120 
-1.31850028 2.16074657 -0.0446474515 9 231 185 
-0.96132201 2.43202376 -0.0521979183 36 244 182 
-0.231972277 -0.195233554 -0.243256524 92 113 103 
-0.00666302163 -0.657505393 -0.100737937 109 90 162 
0.249108613 1.89004326 -0.170377955 128 217 133 
-0.991303086 1.73943329 -0.0274959467 34 210 192 
-0.255056769 -1.16161191 -0.0495549217 90 65 183 
-0.30069989 2.2874949 -0.284729093 86 237 86 
0.20529148 1.19312382 -0.132508293 125 182 149 
0.329851061 -0.616989434 -0.331427187 134 92 67 
-0.158538193 2.12230802 -0.169105142 97 229 134 
0.00639219722 -2.21626735 -0.225785732 110 13 110 
0.187066928 0.534439266 -0.220412314 123 150 112 
0.227913126 0.6416471 -0.355585158 127 155 57 
1.82970619 1.75385153 -0.0113273924 248 210 198 
0.325031519 2.45236707 -0.0055332114 134 245 201 
-0.212233737 -1.56523776 -0.189768821 93 45 125 
-0.101029947 0.449574172 -0.306130946 102 145 77 
-1.2818495 1.88985169 -0.129821837 12 217 150 
0.422848046 2.44076848 -0.220302016 141 245 113 
-0.085957244 1.21101415 -0.272200257 103 183 91 
-0.143593118 1.85531151 -0.16645284 98 215 135 
0.261359185 0.141806692 -0.288357347 129 130 85 
-0.102952383 -0.389439702 -0.188428879 101 104 126 
-0.109105192 2.32373261 -0.325766414 101 239 69 
0.118411139 -1.36133897 0.0136904521 118 55 209 
0.151102334 0.383695602 -0.269216061 121 142 92 
-0.236615494 2.41808248 -0.278230935 91 243 89 
-0.864748776 2.16459107 0.118674904 43 231 252 
-1.0551064 1.77588701 0.104187481 29 211 246 
0.185042068 0.397992224 -0.117175512 123 143 155 
1.59667635 1.84144866 -0.104001269 231 215 160 
-0.0647414774 1.45102441 -0.478423774 104 195 6 
0.371592104 1.93552411 -0.11326953 138 219 157 
-0.946536422 2.16595221 -0.277874261 37 231 89 
0.101356238 -1.33404875 -0.239089906 117 57 105 
0.201248273 -1.00583017 -0.338885725 125 73 64 
-0.238213047 -0.672498047 -0.303068101 91 89 78 
0.348680228 1.60374606 -0.255120337 136 203 98 
0.0352955572 -0.694804072 -0.120053977 112 88 154 
0.250938773 0.0241163224 -0.0903220326 128 124 166 
0.00974178873 0.93689245 -0.166376784 110 170 135 
1.31832087 2.13067508 0.0355453938 210 229 218 
0.140402719 -2.00177526 -0.140087932 120 23 146 
0.00447366899 -1.3559804 0.0012595146 110 55 204 
-0.149916232 -1.42496669 -0.156426698 98 52 139 
-0.216967821 -1.91503537 -0.326006234 93 28 69 
-0.0431683697 -0.917471945 -0.275310665 106 77 90 
0.0785323754 0.941469908 -0.0960842147 115 170 164 
-1.08272469 2.19365335 -0.281466037 27 232 87 
-0.513678491 2.32696176 -0.177873656 70 239 130 
1.01351655 1.77574098 -0.126068473 186 211 151 
-0.219819993 -0.310771346 0.106102958 93 108 247 
-0.140057921 -0.868464887 -0.31824401 99 80 72 
0.792436302 2.12069082 -0.328407198 170 229 68 
0.170461044 0.789262533 -0.217198759 122 162 114 
-0.786419213 1.91417944 -0.346705019 49 218 61 
-0.0126325516 1.41461957 -0.17504935 108 193 131 
-1.0642302 2.13560128 -0.255093515 28 229 98 
-0.29987669 0.828801394 -0.113696486 86 164 156 
-0.378409982 -0.285247535 -0.0462420881 80 109 184 
0.246900558 -2.22144008 0.117285416 128 12 251 
-0.0919901356 -1.423406 -0.0218530521 102 52 194 
0.605228126 1.98395848 -0.27989623 155 222 88 
0.957784951 2.11397624 -0.164653838 182 228 135 
-0.129792854 -1.90357852 -0.0774377733 99 28 171 
0.249850973 0.193362817 -0.218653247 128 133 113 
-0.182021126 -1.26916087 -0.205516562 95 60 119 
-0.28624633 2.35732865 -0.225380957 87 240 110 
-0.0489739701 2.55042696 -0.256610453 106 250 98 
0.0564548112 -0.0216434114 0.0486266464 114 122 223 
1.05706429 2.00856137 -0.114539534 190 223 156 
0.590108752 2.00535178 -0.475999862 154 223 7 
0.142771319 1.41826046 -0.290284514 120 194 84 
-0.596504033 1.95014548 -0.318539411 64 220 72 
0.0744399354 0.513588905 -0.256722271 115 149 98 
-0.830153823 2.52768946 -0.0815262571 46 249 170 
-0.157199293 1.17475069 -0.198328167 97 182 122 
0.144457251 -1.4450525 -0.224372506 120 51 111 
0.0454018191 0.0175332706 -0.157012388 113 124 139 
0.182918847 1.89651906 -0.0915077701 123 217 165 
1.64228177 1.86060262 -0.228625506 234 216 109 
-0.524134338 2.06069183 -0.392164886 69 226 42 
0.182718441 -0.436400652 -0.121391021 123 101 153 
-0.100041032 0.449015617 -0.481340826 102 145 5 
0.144816816 -0.612419009 -0.202615559 120 92 120 
-0.0864907578 0.787848413 -0.353749692 103 162 58 
0.158752367 1.78946412 -0.189339533 121 212 125 
0.125452653 0.101328105 -0.139447019 119 128 146 
-0.29712075 2.21448207 -0.189911574 87 233 125 
-0.06523294 -0.491401941 -0.127428234 104 99 151 
0.0993885174 -1.72833431 -0.236332938 117 37 106 
0.177169695 -0.844377995 -0.17284146 123 81 132 
-0.160174131 1.34929752 -0.307494819 97 190 77 
-0.336355597 1.69469666 -0.219896957 84 207 113 
0.91932416 2.10714602 -0.0968143567 179 228 163 
-0.0849569514 -2.08045006 -0.111044914 103 19 157 
-0.0330004022 2.42233491 -0.373271555 107 244 50 
-0.424984217 2.46293187 -0.0236048345 77 246 193 
-0.184153661 -0.822746277 -0.0613147467 95 82 178 
1.49999547 1.84109974 -0.239577547 223 215 105 
-0.138169259 2.07903481 -0.254036814 99 227 99 
-0.210926399 -1.31426096 -0.18875137 93 58 125 
-0.375573933 -0.2329548 -0.242392272 81 111 103 
1.00038993 1.968647 -0.236608744 185 221 106 
-0.0391284302 0.624195099 -0.0736985356 106 154 173 
-0.106373347 0.876324952 -0.0509817004 101 167 182 
1.0073992 2.09163475 0.0129831526 186 227 208 
-0.581159115 1.85152757 -0.372005641 65 215 50 
0.319678217 1.72233438 -0.313274443 134 209 74 
-0.208669692 2.08033848 -0.480708241 93 227 5 
0.168836683 0.955162644 -0.355476469 122 171 57 
0.166553974 -0.336766541 -0.0164824575 122 106 196 
0.122539088 0.614810228 -0.229460597 119 154 109 
0.0700575709 0.666244268 -0.235395893 115 156 106 
0.92379266 2.0448072 -0.168550923 180 225 134 
0.136799201 -0.315781802 -0.151833668 120 107 141 
0.42019707 1.9306668 -0.249371737 141 219 101 
-0.180913687 -1.69355321 0.10860873 95 39 248 
0.0509093739 -1.53125811 -0.301508486 113 47 79 
1.13316607 1.81222606 -0.173760012 195 213 132 
-0.351793945 2.38235641 -0.217308879 82 242 114 
0.795100689 1.64435482 -0.322574884 170 205 70 
0.24423936 1.21276772 -0.152268931 128 183 140 
-0.0863917619 1.56748784 -0.37709868 103 201 48 
-1.11402345 1.96081686 -0.351545423 24 221 59 
-0.0408849083 -1.50030851 -0.264977098 106 48 94 
-0.0450562462 -0.99527061 -0.267149031 106 73 93 
-0.766739964 2.43008375 -0.139764652 51 244 146 
-0.00879612379 0.196388409 -0.161072835 109 133 137 
-0.148303077 0.17052424 -0.0456293374 98 131 184 
0.359184802 2.0010643 0.10989134 137 223 248 
1.36189854 1.90793705 0.112481534 213 218 249 
0.259343654 1.48526311 -0.0751898885 129 197 172 
0.113864228 1.64816976 -0.13949053 118 205 146 
-1.06044126 2.52724838 0.0975914001 29 249 243 
0.274160713 0.968593359 -0.369043976 130 171 51 
0.0693443343 -2.13417172 0.110233448 115 17 249 
-0.113362283 -1.10085392 -0.321982712 101 68 71 
-0.296598345 -0.428860277 -0.184154302 87 102 127 
0.048860006 -1.70048356 -0.123326346 113 38 152 
-0.138919249 0.472866833 -0.0789208561 99 147 171 
0.269135892 0.618072927 -0.120002151 130 154 154 
-0.096103996 1.85996914 -0.0928056017 102 216 165 
1.39161956 1.75147915 -0.26237005 215 210 95 
0.995305419 2.14278936 0.108481884 185 230 248 
0.0341612771 2.40807796 -0.253534615 112 243 99 
-0.445792973 1.72982287 -0.221620828 75 209 112 
-0.0632971674 1.5488342 -0.273334622 104 200 91 
-0.937015474 1.85721576 -0.274490356 38 216 90 
-0.149218708 2.43972969 -0.301670432 98 245 79 
0.797558486 2.07036519 -0.280749261 170 226 88 
-0.907378376 2.48822308 -0.187003449 40 247 126 
1.2286942 1.69594359 -0.252196878 203 207 99 
-0.0318097025 0.164591342 -0.0777700916 107 131 171 
-1.43114662 2.13631439 -0.184725672 0 229 127 
0.358459324 1.67746413 -0.107766755 137 207 159 
0.509640336 2.18598723 -0.142340511 148 232 145 
-0.0785781816 -0.566151798 0.110251024 103 95 249 
0.208628029 -1.90003502 0.117419422 125 28 251 
1.09491265 1.75527537 -0.368253112 193 210 52 
-0.794527829 2.11362839 -0.0807368085 49 228 170 
0.202196851 -0.607191622 -0.278012395 125 93 89 
-0.112140961 -0.695908487 -0.361055762 101 88 55 
0.121337026 -0.197129443 -0.132295474 118 113 149 
-1.29753494 1.96617961 -0.196009457 11 221 123 
-0.327138186 1.8126142 -0.114229687 84 213 156 
-0.552307546 2.23556018 -0.0735449493 67 234 173 
-0.105724409 -0.541376114 -0.105329394 101 96 160 
0.00923720375 1.16253257 -0.0204825066 110 181 195 
0.233236328 2.07355952 -0.0127923004 127 226 198 
-0.024865903 1.28821969 -0.143066794 107 187 144 
0.996479034 1.74808538 -0.0848640725 185 210 168 
-0.650347471 1.98021448 -0.15889281 60 222 138 
0.0738099739 0.997121751 -0.140335992 115 173 145 
-0.107802548 -1.89092553 -0.307257503 101 29 77 
-0.974009871 1.88853514 -0.262123704 35 217 95 
0.172098473 -1.9548192 -0.0467933044 122 26 184 
0.271514833 1.10082805 -0.198585182 130 178 121 
-0.152674407 0.586823046 -0.138726965 98 152 146 
-1.26606894 2.33499742 -0.174938768 13 239 131 
-0.127560332 -0.478446752 -0.263243943 100 99 95 
0.322022378 -2.13644433 0.010600524 134 17 208 
0.655641079 1.90461445 -0.267270565 159 218 93 
-0.269059062 2.07384562 -0.348062932 89 226 60 
-0.0066005718 -1.83377862 0.0266986042 109 32 214 
-0.801982343 2.10343194 -0.140020818 48 228 146 
0.0316749439 2.01160836 -0.0518551096 112 223 182 
0.0780561417 -0.558184028 -0.0899689049 115 95 166 
0.188950479 1.07090843 0.109953582 124 176 248 
0.0616371557 -2.02523422 -0.134370819 114 22 148 
0.203117684 -0.22924538 -0.284725308 125 112 86 
0.670080185 2.03859448 -0.194044635 160 225 123 
0.554976583 2.05442977 -0.260801047 151 225 96 
-0.144098669 0.747840345 -0.175251469 98 160 131 
-1.29974091 2.43083858 -0.148261845 10 244 142 
0.0954430103 -2.26956344 -0.151639551 117 10 141 
0.0526057817 -1.11240876 -0.251465201 113 68 100 
0.219123378 -1.53327262 -0.0291876756 126 47 191 
0.0468806885 -2.12377787 -0.182846829 113 17 128 
0.0146640735 1.85244 -0.360083997 110 215 55 
0.15950273 -1.34717309 -0.259386927 121 56 96 
-0.229101703 -1.33952796 -0.149371266 92 56 142 
0.145635754 0.215323582 -0.190762207 120 134 125 
-0.0056693037 1.2696923 -0.235262498 109 186 106 
0.0412744544 -2.12528038 -0.239825338 112 17 104 
0.312001497 2.29673743 -0.399237901 133 237 39 
-0.134219155 2.24830484 -0.0590329468 99 235 179 
-0.296487868 -1.02125239 0.108785585 87 72 248 
0.172581598 1.74775136 -0.285427451 122 210 86 
-0.213274345 1.6673317 -0.296617389 93 206 81 
0.0890061483 1.47637224 -0.241003752 116 197 104 
0.231042147 2.34815431 -0.269758224 127 240 92 
-1.00586987 2.18945312 -0.353797883 33 232 58 
0.0539493114 0.900527656 -0.423834145 113 168 29 
-0.735289276 2.33181262 -0.170135975 53 239 133 
-0.0219715834 2.30379677 -0.142295301 108 238 145 
0.0710045397 1.22838831 -0.196668044 115 184 122 
-0.138543889 2.00595045 -0.118586883 99 223 154 
0.168431267 -1.71276319 0.00870370027 122 38 207 
-0.170772836 0.15713796 -0.100314774 96 131 162 
0.126137495 -1.20545089 -0.188950375 119 63 125 
0.0446451269 1.6783613 -0.251681745 113 207 100 
-0.774826944 2.26777864 -0.261246026 50 236 96 
0.223367155 -0.414245129 -0.0481687933 126 102 183 
0.296023548 -2.04677773 0.10604088 132 21 247 
0.240266144 -1.25439262 -0.200098589 128 61 121 
0.146802083 -1.15046561 0.0319509469 120 66 216 
1.54522645 1.82795107 -0.244294658 227 214 103 
-0.16404061 -1.96026206 -0.245066941 97 25 102 
-0.091233328 -0.874804735 -0.146977246 102 79 143 
1.37787831 1.99784279 -0.305467755 214 223 77 
0.0245803148 -2.05315185 -0.324569613 111 21 70 
-1.31449175 2.00526953 -0.121709958 9 223 153 
0.204963088 -1.19664574 -0.0286500696 125 63 191 
-0.166516304 0.597105205 -0.281814963 97 153 87 
-0.147025868 1.8116591 -0.0380908363 98 213 187 
0.327064008 -1.26078486 -0.119329885 134 60 154 
-1.31417429 2.1933744 -0.176973253 9 232 130 
0.171543926 2.07271314 0.00900522526 122 226 207 
0.139491558 1.8669591 -0.132621095 120 216 149 
0.201010734 0.782641411 -0.127221048 125 162 151 
-0.253205925 2.16711688 -0.217478856 90 231 114 
-0.248117685 -0.878029823 -0.348786563 90 79 60 
0.239718571 -0.528465211 -0.208985478 127 97 117 
0.161290467 -2.27318192 -0.328070611 122 10 68 
-0.173373818 1.52612484 0.015238991 96 199 209 
-0.371293724 0.452929527 -0.345037848 81 146 61 
-0.372885942 -0.991324067 -0.0201919433 81 74 195 
0.155399844 0.858478606 -0.339917481 121 166 63 
0.197618052 0.343908459 0.0271654781 124 140 214 
-0.134923652 -0.856502652 -0.193871155 99 80 123 
-0.498088539 1.64430463 -0.333117455 71 205 66 
-0.444400907 2.2895968 -0.27173847 75 237 91 
0.737232625 1.82410038 -0.0611839592 165 214 178 
-1.23013461 2.24612188 -0.14833042 16 235 142 
-0.36583522 2.43140888 -0.260272741 81 244 96 
0.227458984 0.0636493415 -0.160283282 127 126 137 
-0.0635868609 -1.26606798 -0.278953642 104 60 88 
0.0485734269 -1.54233181 -0.118729442 113 46 154 
0.114788666 0.181998268 -0.237393394 118 132 105 
-0.169494778 -0.473151147 -0.311647892 96 99 75 
0.0218207575 -1.98832738 -0.233593151 111 24 107 
-0.11420501 2.3591373 -0.152266026 101 241 141 
0.0444550551 -0.848868608 -0.0380784236 113 81 187 
0.332470983 0.504032075 -0.115184136 135 148 156 
0.258963317 1.92269385 -0.154195562 129 219 140 
-0.209930465 -1.19829643 -0.0893078372 93 63 166 
